ply
format ascii 1.0
element vertex 450
property float x
property float y
property float z
end_header
-0.3125469982624054 0.39022764563560486 1.6674798727035522
-0.2714669406414032 0.33569443225860596 1.6376608610153198
-0.25256890058517456 0.31964293122291565 1.6322733163833618
-0.24786287546157837 0.3086341619491577 1.6355139017105103
-0.2451990395784378 0.31038787961006165 1.6332461833953857
-0.2427380084991455 0.3147224187850952 1.6305630207061768
-0.24197880923748016 0.31139469146728516 1.6274157762527466
-0.2407909631729126 0.3160594403743744 1.6297072172164917
-0.23998787999153137 0.3080609440803528 1.631662130355835
-0.23614008724689484 0.3066307008266449 1.631036400794983
-0.23563270270824432 0.30362099409103394 1.6314159631729126
-0.23456141352653503 0.3238178789615631 1.6254363059997559
-0.23355279862880707 0.31180432438850403 1.6293154954910278
-0.23232094943523407 0.31846678256988525 1.6270421743392944
-0.2325691431760788 0.3025170862674713 1.63089120388031
-0.2325691431760788 0.3025170862674713 1.63089120388031
-0.23083199560642242 0.32407259941101074 1.6248852014541626
-0.2319622039794922 0.2903604805469513 1.6368516683578491
-0.23078656196594238 0.30744439363479614 1.6291372776031494
-0.23038414120674133 0.3134651184082031 1.6276580095291138
-0.23025064170360565 0.31062644720077515 1.6282023191452026
-0.2296343743801117 0.3157476484775543 1.6269656419754028
-0.2304142713546753 0.28804412484169006 1.6382735967636108
-0.22902247309684753 0.2860618829727173 1.6395267248153687
-0.22519534826278687 0.3000088930130005 1.6296979188919067
-0.22380980849266052 0.32800716161727905 1.6220804452896118
-0.22380980849266052 0.32800716161727905 1.6220804452896118
-0.2247622013092041 0.2998676300048828 1.6307095289230347
-0.2236737608909607 0.303839772939682 1.6284297704696655
-0.22331097722053528 0.3047693967819214 1.6277467012405396
-0.22290001809597015 0.3112441599369049 1.6267200708389282
-0.22057205438613892 0.3092394173145294 1.6263995170593262
-0.21989820897579193 0.3151583969593048 1.624732494354248
-0.2180761843919754 0.30823174118995667 1.6256818771362305
-0.21824310719966888 0.3004249632358551 1.6270755529403687
-0.21582654118537903 0.3280816078186035 1.6203070878982544
-0.21550379693508148 0.3313707113265991 1.6197724342346191
-0.21550379693508148 0.3313707113265991 1.6197724342346191
-0.21631240844726562 0.29210445284843445 1.6323649883270264
-0.21496990323066711 0.3163522183895111 1.6231576204299927
-0.21425668895244598 0.3336089849472046 1.619210124015808
-0.21425668895244598 0.3336089849472046 1.619210124015808
-0.2138652801513672 0.31339338421821594 1.6237561702728271
-0.21268771588802338 0.3254043161869049 1.6204242706298828
-0.2113410383462906 0.3743759095668793 1.6110304594039917
-0.21429727971553802 0.2927860915660858 1.6367982625961304
-0.21585634350776672 0.2705366313457489 1.650301218032837
-0.21204859018325806 0.3152550756931305 1.622870922088623
-0.2115364670753479 0.3279561996459961 1.6196495294570923
-0.21150514483451843 0.3032812476158142 1.6259444952011108
-0.20611166954040527 0.3102627992630005 1.6233526468276978
-0.2046855092048645 0.32681944966316223 1.6188312768936157
-0.20481158792972565 0.3169310390949249 1.6217093467712402
-0.20123589038848877 0.37343844771385193 1.604601502418518
-0.20211276412010193 0.320928692817688 1.6206587553024292
-0.20204293727874756 0.3075573444366455 1.6231238842010498
-0.20155133306980133 0.3235887885093689 1.6195439100265503
-0.20098324120044708 0.3149685561656952 1.622519612312317
-0.1988857388496399 0.3166126012802124 1.621667504310608
-0.19704967737197876 0.308321088552475 1.6239725351333618
-0.19682155549526215 0.31135910749435425 1.6233707666397095
-0.1785629540681839 0.3353317379951477 1.6149017810821533
-0.17888903617858887 0.33009037375450134 1.6180071830749512
-0.17799918353557587 0.3243105113506317 1.621152639389038
-0.17759542167186737 0.32877472043037415 1.6186411380767822
-0.17574433982372284 0.3304934501647949 1.6168339252471924
-0.1681717485189438 -0.07563623785972595 1.5887080430984497
-0.16804997622966766 0.3449123799800873 1.6095386743545532
-0.16804997622966766 0.3449123799800873 1.6095386743545532
-0.16985787451267242 0.30668163299560547 1.6274569034576416
-0.16703850030899048 -0.00988280214369297 1.6150991916656494
-0.16703850030899048 -0.00988280214369297 1.6150991916656494
-0.166171133518219 -0.006182525306940079 1.6145009994506836
-0.1671385020017624 0.3088173568248749 1.625775933265686
-0.16318580508232117 0.033931370824575424 1.598665475845337
-0.1639929711818695 0.3021846413612366 1.6286565065383911
-0.15890134871006012 0.056637316942214966 1.599300503730774
-0.15608185529708862 -0.002428682753816247 1.5987352132797241
-0.15744103491306305 0.31227439641952515 1.6197638511657715
-0.16614051163196564 0.16567690670490265 1.7105257511138916
-0.153898224234581 -0.014484390616416931 1.5928400754928589
-0.1562800407409668 0.06718393415212631 1.6191412210464478
-0.15944738686084747 0.12487781792879105 1.6595021486282349
-0.15470963716506958 0.3209766149520874 1.6171231269836426
-0.15217694640159607 0.04895263537764549 1.5934858322143555
-0.1525062918663025 -0.0033117940183728933 1.597694754600525
-0.15566743910312653 0.287086546421051 1.6342382431030273
-0.1511397510766983 0.06840185821056366 1.6059149503707886
-0.14967213571071625 0.00477974396198988 1.5948582887649536
-0.15354013442993164 0.27844375371932983 1.6385291814804077
-0.14512674510478973 -0.1687290519475937 1.5488516092300415
-0.15106584131717682 0.3212009072303772 1.6169168949127197
-0.1519419550895691 0.2745699882507324 1.6389402151107788
-0.14826595783233643 0.06919689476490021 1.6038209199905396
-0.14428925514221191 -0.016092529520392418 1.5895391702651978
-0.1540542095899582 0.19004487991333008 1.705175518989563
-0.15104222297668457 0.1917203962802887 1.70455801486969
-0.140699103474617 -0.013036270625889301 1.588029146194458
-0.14601953327655792 0.1073729544878006 1.6530064344406128
-0.14154188334941864 0.34523648023605347 1.6069443225860596
-0.14468632638454437 0.12865926325321198 1.6613212823867798
-0.14787557721138 0.18850944936275482 1.705665111541748
-0.14422158896923065 0.18646030128002167 1.7050789594650269
-0.14422158896923065 0.18646030128002167 1.7050789594650269
-0.1353396326303482 0.08987520635128021 1.613701343536377
-0.1353396326303482 0.08987520635128021 1.613701343536377
-0.13515575230121613 0.10644158720970154 1.6127368211746216
-0.13453157246112823 0.08461456745862961 1.614030122756958
-0.13355837762355804 0.10275450348854065 1.6113343238830566
-0.13090746104717255 -0.01706460863351822 1.583024024963379
-0.1409997195005417 0.18003776669502258 1.7057206630706787
-0.14049863815307617 0.18588045239448547 1.7041226625442505
-0.13645444810390472 0.23860973119735718 1.6552467346191406
-0.1321146935224533 0.08772162348031998 1.6121268272399902
-0.1316487342119217 0.09399326890707016 1.6102007627487183
-0.1326146125793457 0.3037613332271576 1.6268115043640137
-0.1311681866645813 0.11149078607559204 1.6086353063583374
-0.12977854907512665 0.07278572022914886 1.600620985031128
-0.13007386028766632 0.10630589723587036 1.6075890064239502
-0.12981222569942474 0.09235828369855881 1.6104649305343628
-0.13321568071842194 0.23124681413173676 1.659501075744629
-0.12863223254680634 0.10164891928434372 1.6069844961166382
-0.1283717304468155 0.11278510838747025 1.6060295104980469
-0.1186717301607132 -0.12445219606161118 1.4866113662719727
-0.1277158260345459 0.1037067249417305 1.605948805809021
-0.1258959174156189 0.3526848256587982 1.6025547981262207
-0.125784769654274 0.07600821554660797 1.6005421876907349
-0.13372676074504852 0.18374498188495636 1.7023351192474365
-0.12549540400505066 0.10535992681980133 1.6037126779556274
-0.1288803666830063 0.2190881073474884 1.6669381856918335
-0.12384994328022003 0.09858056902885437 1.6018986701965332
-0.12384994328022003 0.09858056902885437 1.6018986701965332
-0.12372481822967529 0.10476785898208618 1.601751446723938
-0.12249080091714859 0.10932198911905289 1.5996195077896118
-0.12209368497133255 0.1032310351729393 1.5997090339660645
-0.12112022936344147 0.08780097216367722 1.601442575454712
-0.12069736421108246 0.09316004812717438 1.5999231338500977
-0.12770503759384155 0.18241190910339355 1.699450135231018
-0.12285178899765015 0.28280532360076904 1.6357464790344238
-0.12058616429567337 0.32694458961486816 1.6119598150253296
-0.11841446161270142 0.09550502896308899 1.59618079662323
-0.1179623007774353 0.10673027485609055 1.5955438613891602
-0.11752554774284363 0.11201263964176178 1.5956865549087524
-0.11715912818908691 0.0989096388220787 1.595101237297058
-0.11672279983758926 0.10882730782032013 1.5952264070510864
-0.11888488382101059 0.26639336347579956 1.6437256336212158
-0.12171857059001923 0.18560446798801422 1.6978862285614014
-0.12171857059001923 0.18560446798801422 1.6978862285614014
-0.12090623378753662 0.18155430257320404 1.6936750411987305
-0.11324305832386017 0.2351970374584198 1.6581403017044067
-0.1142335757613182 0.18587744235992432 1.6954970359802246
-0.1055280864238739 0.3804250657558441 1.5929670333862305
-0.09692304581403732 -0.09760402143001556 1.464730978012085
-0.09692304581403732 -0.09760402143001556 1.464730978012085
-0.1105564534664154 0.18146973848342896 1.6967909336090088
-0.09384043514728546 -0.10112740844488144 1.4637374877929688
-0.10792534053325653 0.19596633315086365 1.684424638748169
-0.09339888393878937 -0.09728825837373734 1.460773229598999
-0.10737023502588272 0.184998020529747 1.6920491456985474
-0.10120280832052231 0.36401233077049255 1.5976390838623047
-0.10669554024934769 0.19060544669628143 1.6882160902023315
-0.10007523745298386 0.3393465578556061 1.608346700668335
-0.1049913763999939 0.18802474439144135 1.6900900602340698
-0.10337747633457184 0.1984991729259491 1.6796188354492188
-0.09966796636581421 0.3103560507297516 1.6272095441818237
-0.10239294916391373 0.18916311860084534 1.6897982358932495
-0.10225114226341248 0.186503604054451 1.6895719766616821
-0.10017749667167664 0.23629257082939148 1.6562680006027222
-0.09773211926221848 0.32144469022750854 1.6192153692245483
-0.10128073394298553 0.19275502860546112 1.6831625699996948
-0.09958294034004211 0.23020218312740326 1.658637523651123
-0.0992751345038414 0.2183104306459427 1.664156198501587
-0.09610562771558762 0.3114262521266937 1.6260591745376587
-0.08751708269119263 -0.012688512913882732 1.4883302450180054
-0.09815989434719086 0.2073395699262619 1.670631766319275
-0.08268126845359802 -0.008227934129536152 1.4827964305877686
-0.08094422519207001 -0.0049485107883811 1.478495478630066
-0.08094422519207001 -0.0049485107883811 1.478495478630066
-0.0796198770403862 -0.01339442003518343 1.4779380559921265
-0.07937117666006088 -0.018361298367381096 1.4782081842422485
-0.07890039682388306 -0.007954813539981842 1.4784009456634521
-0.07771927863359451 -0.02563355304300785 1.4629091024398804
-0.07847735285758972 0.004905305337160826 1.4780806303024292
-0.07769587635993958 -0.004629808943718672 1.4759551286697388
-0.07730479538440704 -0.01562667265534401 1.4760608673095703
-0.07641230523586273 -0.0023668361827731133 1.474555492401123
-0.07630424946546555 -0.008463322184979916 1.4763139486312866
-0.07606688886880875 -0.019102513790130615 1.4748303890228271
-0.07287629693746567 -0.0017738306196406484 1.4724140167236328
-0.07256226241588593 -0.004096889868378639 1.473212718963623
-0.07065438479185104 -0.011659035459160805 1.4721879959106445
-0.07036244869232178 -0.0037501442711800337 1.4711815118789673
-0.0692986473441124 -0.0015500941080972552 1.4709409475326538
-0.06634660065174103 -0.0014535881346091628 1.4699562788009644
-0.06532171368598938 -0.23545636236667633 1.4531716108322144
-0.06305083632469177 -0.0017927830340340734 1.4694198369979858
-0.06252581626176834 -0.012334038503468037 1.470492959022522
-0.05253928154706955 -0.2368476390838623 1.4456688165664673
-0.050414200872182846 -0.018584050238132477 1.476142168045044
-0.044932302087545395 -0.21791377663612366 1.4308257102966309
-0.04362314194440842 0.13091975450515747 1.47018301486969
-0.04241820424795151 -0.23605266213417053 1.4420251846313477
-0.04016925394535065 -0.23865766823291779 1.441633939743042
-0.03803426772356033 -0.23623579740524292 1.441253900527954
-0.0387764535844326 -0.01826651021838188 1.475279688835144
-0.036116279661655426 -0.2317444235086441 1.4390395879745483
-0.03500855341553688 -0.02024092711508274 1.4783260822296143
-0.033077217638492584 -0.05957992374897003 1.4469765424728394
-0.03157960996031761 -0.009340394288301468 1.4800972938537598
-0.03157960996031761 -0.009340394288301468 1.4800972938537598
-0.03146591782569885 -0.0133749321103096 1.4794327020645142
-0.03134295344352722 -0.006947187706828117 1.483644962310791
-0.0281235221773386 -0.24019791185855865 1.4408690929412842
-0.028772927820682526 -0.009457544423639774 1.4796854257583618
-0.026527859270572662 -0.22960659861564636 1.440116047859192
-0.026527859270572662 -0.22960659861564636 1.440116047859192
-0.026293136179447174 -0.24174155294895172 1.4321730136871338
-0.02200094237923622 -0.24278992414474487 1.4388664960861206
-0.020808402448892593 -0.2418416142463684 1.452379584312439
-0.018996266648173332 0.09585825353860855 1.4344040155410767
-0.019295714795589447 0.13795778155326843 1.4686506986618042
-0.018854718655347824 -0.21552927792072296 1.4382193088531494
-0.01869555190205574 -0.2435711920261383 1.4440242052078247
-0.01828252710402012 -0.26718389987945557 1.4427261352539062
-0.01468797866255045 0.13299743831157684 1.4747705459594727
-0.01356261782348156 0.16215652227401733 1.446393609046936
-0.010907217860221863 -0.24061493575572968 1.4370511770248413
-0.010275894775986671 0.06435563415288925 1.4339607954025269
-0.006441046949476004 0.1268744319677353 1.4749956130981445
-0.004620705731213093 0.16268299520015717 1.444106101989746
-0.004417005460709333 0.16278444230556488 1.4444140195846558
-0.002077666576951742 0.11520382761955261 1.4420009851455688
-0.0020467310678213835 0.11219410598278046 1.4420406818389893
-0.0020467310678213835 0.11219410598278046 1.4420406818389893
0.0005521714920178056 -0.22543449699878693 1.4393470287322998
0.0016131821321323514 0.12220849096775055 1.4553427696228027
0.001921239891089499 0.10842321068048477 1.4403634071350098
0.005036020651459694 0.09922586381435394 1.4715900421142578
0.008522965013980865 -0.21331563591957092 1.4433789253234863
0.014324553310871124 -0.1598597913980484 1.4396575689315796
0.019901417195796967 0.3801928758621216 1.5866533517837524
0.0204228013753891 0.13023258745670319 1.4762203693389893
0.02012043632566929 -0.24072924256324768 1.4344377517700195
0.023837871849536896 0.37587711215019226 1.587989091873169
0.03518564999103546 -0.014552038162946701 1.4743611812591553
0.0358147956430912 -0.23955954611301422 1.442731261253357
0.03588690236210823 -0.16791976988315582 1.4415111541748047
0.0372665636241436 -0.013529635034501553 1.472838282585144
0.03764737397432327 0.12897156178951263 1.4728971719741821
0.03863901272416115 -0.007645058445632458 1.472951054573059
0.0400472916662693 -0.010749018751084805 1.472615361213684
0.04436153918504715 0.34486880898475647 1.596215009689331
0.04206487908959389 -0.013894391246140003 1.4701166152954102
0.04318206384778023 -0.24288922548294067 1.4458177089691162
0.04546506702899933 -0.005388989578932524 1.469409465789795
0.04613965004682541 -0.0032290806993842125 1.468623161315918
0.05479620024561882 -0.005972522776573896 1.7003201246261597
0.048865824937820435 -0.005835309624671936 1.468277931213379
0.049179308116436005 -0.0017905902350321412 1.4670857191085815
0.050613876432180405 -0.016706766560673714 1.459679126739502
0.053141333162784576 0.0010407761437818408 1.4664860963821411
0.053369659930467606 -0.008749391883611679 1.4665303230285645
0.06399129331111908 -0.0008292507845908403 1.6802960634231567
0.05845829099416733 -0.00022210062888916582 1.4657460451126099
0.058487944304943085 -0.011676158756017685 1.4638749361038208
0.05891147255897522 -0.003000236814841628 1.466444730758667
0.06380841135978699 -0.005557551048696041 1.4667879343032837
0.06474721431732178 -0.01539567206054926 1.4557337760925293
0.08290187269449234 0.3078869879245758 1.6190654039382935
0.09549934417009354 0.3271958529949188 1.6030617952346802
0.09882684051990509 0.32135769724845886 1.6073808670043945
0.09882684051990509 0.32135769724845886 1.6073808670043945
0.10842935740947723 0.30549371242523193 1.6186083555221558
0.12042813003063202 0.343780517578125 1.5912851095199585
0.12042813003063202 0.343780517578125 1.5912851095199585
0.12049420922994614 0.34654003381729126 1.5893783569335938
0.13035093247890472 0.31716498732566833 1.6093692779541016
0.2447654753923416 0.1763252168893814 2.482010841369629
0.20775046944618225 -0.02201852761209011 1.5770606994628906
-0.3780058026313782 0.3726683557033539 2.538916826248169
-0.37444669008255005 0.38350680470466614 2.533008575439453
-0.36024776101112366 0.38560429215431213 2.5215306282043457
-0.35873955488204956 0.3484494388103485 2.5328209400177
-0.3561183512210846 0.3994135856628418 2.510873317718506
-0.3574526906013489 0.37060004472732544 2.523040294647217
-0.356781542301178 0.37865710258483887 2.51975154876709
-0.3462708592414856 0.39759597182273865 2.507192850112915
-0.3449614346027374 0.3663328289985657 2.5145702362060547
-0.34419116377830505 0.3746170997619629 2.5113794803619385
-0.3366272449493408 0.359905481338501 2.5102698802948
-0.33603477478027344 0.3753114938735962 2.5047824382781982
-0.33603477478027344 0.3753114938735962 2.5047824382781982
-0.3330630362033844 0.39665529131889343 2.498096227645874
-0.3323734998703003 0.40075942873954773 2.4954638481140137
-0.3323734998703003 0.40075942873954773 2.4954638481140137
-0.3312050402164459 0.38080212473869324 2.499804735183716
-0.33035847544670105 0.4035789370536804 2.4936444759368896
-0.33035847544670105 0.4035789370536804 2.4936444759368896
-0.32951411604881287 0.3767950236797333 2.5011911392211914
-0.32582375407218933 0.39584383368492126 2.492417812347412
-0.3220446705818176 0.3935704529285431 2.490476369857788
-0.32154372334480286 0.3669312298297882 2.4958255290985107
-0.31921249628067017 0.3746151626110077 2.492520809173584
-0.3144967257976532 0.39354756474494934 2.4852824211120605
-0.3099321126937866 0.38510531187057495 2.4839072227478027
-0.3097808361053467 0.36793437600135803 2.4888699054718018
-0.3092423975467682 0.38899239897727966 2.4831953048706055
-0.30452412366867065 0.37911108136177063 2.482311248779297
-0.3013083040714264 0.3679058849811554 2.483452081680298
-0.30104777216911316 0.37195077538490295 2.4829649925231934
-0.27046921849250793 0.3864361345767975 2.4620399475097656
-0.252532035112381 0.36484888195991516 2.457374334335327
-0.24730274081230164 0.3559650182723999 2.4579646587371826
-0.23292595148086548 0.37912800908088684 2.4342401027679443
-0.22730328142642975 0.3794621527194977 2.432539701461792
-0.2290615737438202 0.3197972774505615 2.4603118896484375
-0.2127164602279663 0.4096532166004181 2.4106264114379883
-0.19759680330753326 0.3542599081993103 2.4270148277282715
-0.18189723789691925 0.3257988393306732 2.4289581775665283
-0.1773250699043274 0.38203027844429016 2.397859811782837
-0.17870043218135834 0.314721941947937 2.4321916103363037
-0.15194721519947052 0.350463330745697 2.40446138381958
-0.14992555975914001 0.36337822675704956 2.394956588745117
-0.14910541474819183 0.37569499015808105 2.386352062225342
-0.14875775575637817 0.37021955847740173 2.3897294998168945
-0.14791825413703918 0.3963049650192261 2.3745367527008057
-0.14758332073688507 0.33137381076812744 2.4108707904815674
-0.14657200872898102 0.35897722840309143 2.3967747688293457
-0.14462298154830933 0.3319471478462219 2.4100027084350586
-0.1423054188489914 0.33468687534332275 2.4079644680023193
-0.14122115075588226 0.35967597365379333 2.3931920528411865
-0.11709672212600708 -0.052347730845212936 2.4713492393493652
-0.10368499159812927 -0.03527176007628441 2.195889949798584
-0.09978501498699188 -0.03498655557632446 2.189056396484375
-0.09664171189069748 -0.17895622551441193 2.1548800468444824
-0.08504191786050797 -0.04904826357960701 2.1790547370910645
-0.08055728673934937 -0.057996369898319244 2.1804754734039307
-0.07736601680517197 -0.038132864981889725 2.1761326789855957
-0.07436750084161758 -0.03654133155941963 2.1747934818267822
-0.0690852478146553 -0.03804884850978851 2.1735222339630127
-0.06437477469444275 -0.32850971817970276 2.142439842224121
-0.059666264802217484 -0.0401507243514061 2.171220541000366
-0.059666264802217484 -0.0401507243514061 2.171220541000366
-0.05681241303682327 -0.0386483408510685 2.1708123683929443
-0.05373480170965195 0.1442691683769226 2.1512465476989746
-0.05317254737019539 -0.04425692558288574 2.172250747680664
-0.07330883294343948 -0.42650920152664185 2.887190818786621
-0.05191380903124809 -0.03889784216880798 2.170241117477417
-0.050147492438554764 -0.05437232181429863 2.168882131576538
-0.04500070586800575 -0.04117850214242935 2.1685597896575928
-0.04439779371023178 -0.03786729648709297 2.1614010334014893
-0.043002624064683914 -0.33148980140686035 2.1284070014953613
-0.040423810482025146 -0.31673726439476013 2.124174118041992
-0.040423810482025146 -0.31673726439476013 2.124174118041992
-0.036942094564437866 -0.3054811358451843 2.118273973464966
-0.03189133107662201 -0.3299635350704193 2.1236393451690674
-0.017541583627462387 -0.32973942160606384 2.110895872116089
-0.005357024259865284 0.17285512387752533 2.0998852252960205
-0.005053612869232893 0.17290933430194855 2.0993165969848633
-0.001547440537251532 0.11459022015333176 2.095686197280884
-0.0015549389645457268 0.11271645128726959 2.1205649375915527
0.0030319769866764545 0.1476403921842575 2.1057283878326416
0.004269635304808617 0.10600191354751587 2.0923678874969482
0.009056195616722107 0.016595300287008286 2.0550522804260254
0.017025263980031013 0.13635742664337158 2.1177468299865723
0.018766729161143303 0.14486196637153625 2.1068308353424072
0.01979917287826538 0.10492029041051865 2.085987091064453
0.021071474999189377 0.11593500524759293 2.0861876010894775
0.020495442673563957 -0.2249179482460022 2.088346481323242
0.026164403185248375 0.13783466815948486 2.109633684158325
0.029738709330558777 0.11522224545478821 2.087094306945801
0.02947409823536873 0.10949664562940598 2.0626325607299805
0.030118130147457123 0.11534391343593597 2.086357831954956
0.030752070248126984 0.13123908638954163 2.1166656017303467
0.03155215457081795 0.14472596347332 2.097442388534546
0.03172680363059044 0.11825864762067795 2.0877702236175537
0.02888989821076393 -0.3311506509780884 2.0811221599578857
0.03391407057642937 0.1093200296163559 2.085434675216675
0.03558561950922012 -0.24726887047290802 2.075427770614624
0.040409307926893234 0.13889919221401215 2.104595422744751
0.0409473292529583 -0.2521175146102905 2.0738725662231445
0.043717753142118454 -0.04250158369541168 2.115291118621826
0.04966990277171135 -0.31817102432250977 2.0785908699035645
0.04999108240008354 -0.3199400007724762 2.0760998725891113
0.05746445432305336 0.12130005657672882 2.0972440242767334
0.057115789502859116 -0.29393523931503296 2.070443630218506
0.06041412055492401 -0.3245094120502472 2.0766961574554443
0.07663130015134811 -0.02579130418598652 2.080579996109009
0.0769442692399025 -0.03705424442887306 2.082874298095703
0.07893500477075577 -0.03956965357065201 2.080641984939575
0.07956761866807938 -0.032118771225214005 2.081098794937134
0.08467329293489456 -0.03002464957535267 2.078483819961548
0.0864579826593399 -0.03603552654385567 2.076115131378174
0.088908351957798 -0.02242392674088478 2.0743184089660645
0.09139013290405273 -0.03286023065447807 2.074363946914673
0.09244472533464432 -0.030152853578329086 2.074392795562744
0.0930061787366867 -0.03552988916635513 2.0727715492248535
0.09311749786138535 -0.026590920984745026 2.074251174926758
0.09336569160223007 -0.03944801911711693 2.0719094276428223
0.09807408601045609 -0.026848874986171722 2.072746753692627
0.09990286827087402 -0.019819213077425957 2.0700087547302246
0.1007910668849945 -0.03152008727192879 2.071166753768921
0.1007910668849945 -0.03152008727192879 2.071166753768921
0.1009412482380867 -0.026397624984383583 2.0718162059783936
0.1006712019443512 -0.0403570830821991 2.065647602081299
0.10028667747974396 -0.3144124746322632 2.0656251907348633
0.10453248769044876 -0.019766323268413544 2.069183111190796
0.10467728972434998 -0.04080681875348091 2.0575454235076904
0.10598531365394592 -0.02302856370806694 2.0699100494384766
0.10624736547470093 -0.023400770500302315 2.074634313583374
0.10602833330631256 -0.03145109862089157 2.0702977180480957
0.10857274383306503 -0.029042880982160568 2.070911407470703
0.10944046825170517 -0.019550329074263573 2.0681848526000977
0.10944046825170517 -0.019550329074263573 2.0681848526000977
0.1153508797287941 -0.030116191133856773 2.070363998413086
0.11593256145715714 -0.024971334263682365 2.070107936859131
0.11818716675043106 -0.0335928276181221 2.0649049282073975
0.11915908008813858 -0.021541155874729156 2.0680527687072754
0.12171029299497604 -0.026275673881173134 2.068542957305908
0.12171029299497604 -0.026275673881173134 2.068542957305908
0.12234839797019958 -0.03489858657121658 2.078484535217285
0.12397152930498123 -0.023573672398924828 2.0685153007507324
0.12484820932149887 -0.027133803814649582 2.068743944168091
0.12594933807849884 -0.031052522361278534 2.068307399749756
0.12611186504364014 -0.03018992580473423 2.0700738430023193
0.12843921780586243 -0.031576551496982574 2.0704426765441895
0.12843921780586243 -0.031576551496982574 2.0704426765441895
0.13024987280368805 -0.02774403616786003 2.0689706802368164
0.13042780756950378 -0.030114982277154922 2.0698134899139404
0.1336764544248581 -0.18393529951572418 2.0642383098602295
0.14085125923156738 -0.24272684752941132 2.0676426887512207
0.1545563042163849 -0.2773369252681732 2.083024740219116
0.15544284880161285 -0.17795763909816742 2.070997953414917
0.15872739255428314 -0.23949220776557922 2.064720392227173
0.1616033911705017 -0.21297943592071533 2.0680487155914307
0.1630001664161682 -0.18609647452831268 2.0674867630004883
0.17155666649341583 -0.1921616643667221 2.0694732666015625
0.17203150689601898 -0.18993474543094635 2.0673763751983643
0.1718769073486328 -0.23988184332847595 2.0678021907806396
0.19117818772792816 -0.26991599798202515 2.1086320877075195
0.19668453931808472 -0.2780481278896332 2.1166067123413086
0.19718991219997406 -0.11890805512666702 2.095397472381592
0.16126292943954468 0.25103825330734253 1.6871042251586914
0.2096453458070755 0.015930235385894775 2.1387293338775635
0.21327391266822815 0.015908807516098022 2.1369919776916504
0.21369610726833344 0.018338387832045555 2.1355607509613037
0.21369610726833344 0.018338387832045555 2.1355607509613037
0.22902311384677887 -0.06592784076929092 2.0971930027008057
0.2718065679073334 -0.05383143201470375 2.0973527431488037
0.2771931290626526 -0.049768537282943726 2.0963239669799805
